ply
    format ascii 1.0
    element vertex 64410
    property float x
    property float y
    property float z
    property uchar red
    property uchar green
    property uchar blue
    end_header
12.000000 4.437500 -27.700001 64 125 153 
12.187500 4.437500 -27.700001 112 168 188 
12.250000 4.437500 -27.700001 116 178 203 
12.312500 4.437500 -27.700001 111 178 206 
12.375000 4.437500 -27.700001 101 169 201 
12.437500 4.437500 -27.700001 74 121 148 
12.500000 4.437500 -27.700001 63 80 84 
12.562500 4.437500 -27.700001 97 114 112 
12.625000 4.437500 -27.700001 127 153 156 
12.687500 4.437500 -27.700001 140 169 175 
12.812500 4.437500 -27.700001 158 183 190 
12.875000 4.437500 -27.700001 164 188 195 
12.937500 4.437500 -27.700001 169 192 200 
13.000000 4.437500 -27.700001 173 196 202 
13.062500 4.437500 -27.700001 174 198 205 
13.125000 4.437500 -27.700001 175 198 204 
13.187500 4.437500 -27.700001 176 198 205 
13.250000 4.437500 -27.700001 174 198 205 
13.312500 4.437500 -27.700001 169 194 201 
13.375000 4.437500 -27.700001 137 161 172 
13.437500 4.437500 -27.700001 84 99 105 
13.500000 4.437500 -27.700001 75 87 85 
13.562500 4.437500 -27.700001 79 89 88 
13.625000 4.437500 -27.700001 84 94 92 
14.187500 4.437500 -27.700001 92 99 96 
-5.044068 1.898305 -12.018984 212 213 209 
-5.016949 1.898305 -12.018984 211 213 209 
-4.956229 1.885522 -11.938047 211 212 208 
-4.929293 1.885522 -11.938047 191 192 190 
-2.839013 1.316099 -8.332786 54 66 85 
-2.833530 1.322314 -8.372137 27 36 51 
-2.814640 1.322314 -8.372137 24 39 65 
-2.782609 1.316099 -8.332786 23 39 63 
-2.780142 1.323877 -8.382033 26 52 88 
-2.757969 1.322314 -8.372137 23 59 99 
-2.732627 1.319199 -8.352415 23 59 101 
-2.716981 1.320755 -8.362265 24 58 99 
-2.714116 1.328588 -8.411862 23 64 106 
-2.691943 1.327014 -8.401896 23 65 108 
-2.679335 1.330166 -8.421853 22 61 102 
-2.660332 1.330166 -8.421853 23 62 103 
-2.641330 1.330166 -8.421853 21 61 102 
-2.619217 1.328588 -8.411862 21 60 104 
-2.600237 1.328588 -8.411862 21 60 108 
-2.581257 1.328588 -8.411862 23 60 106 
-2.565321 1.330166 -8.421853 21 57 101 
-2.549346 1.331748 -8.431867 20 55 98 
-2.536353 1.334923 -8.451967 21 52 95 
-2.517282 1.334923 -8.451967 21 49 91 
-2.498212 1.334923 -8.451967 18 48 92 
-2.482100 1.336516 -8.462052 21 52 98 
-2.463007 1.336516 -8.462052 19 56 99 
-2.441001 1.334923 -8.451967 22 58 103 
-2.430622 1.339713 -8.482297 22 57 99 
-2.408602 1.338112 -8.472162 21 54 97 
-2.392344 1.339713 -8.482297 21 54 97 
-2.376048 1.341317 -8.492455 20 50 89 
-2.359712 1.342926 -8.502638 22 50 91 
-2.334928 1.339713 -8.482297 23 53 96 
-2.321343 1.342926 -8.502638 24 56 100 
-2.296651 1.339713 -8.482297 23 57 102 
-2.280240 1.341317 -8.492455 22 57 100 
-2.261078 1.341317 -8.492455 22 55 101 
-2.241916 1.341317 -8.492455 20 56 101 
-2.228091 1.344538 -8.512845 19 53 96 
-2.208884 1.344538 -8.512845 21 54 94 
-2.192308 1.346154 -8.523077 21 51 90 
-2.173077 1.346154 -8.523077 21 48 89 
-2.153846 1.346154 -8.523077 20 47 87 
-2.137184 1.347774 -8.533334 20 51 92 
-2.117930 1.347774 -8.533334 22 51 92 
-2.101205 1.349398 -8.543614 20 50 93 
-2.084439 1.351025 -8.553921 19 50 93 
-2.067633 1.352657 -8.564252 19 50 93 
-2.043374 1.349398 -8.543614 18 49 93 
-2.031439 1.354293 -8.574607 20 49 91 
-2.009662 1.352657 -8.564252 20 50 93 
-1.990338 1.352657 -8.564252 19 52 96 
-1.975787 1.355932 -8.584989 19 54 101 
-1.958788 1.357576 -8.595394 20 56 105 
-1.934704 1.354293 -8.574607 23 58 105 
-1.922330 1.359223 -8.605825 23 56 102 
-1.905225 1.360875 -8.616282 23 54 99 
-1.883495 1.359223 -8.605825 23 57 102 
-1.864078 1.359223 -8.605825 22 57 101 
-1.844660 1.359223 -8.605825 22 52 96 
-1.808019 1.360875 -8.616282 25 51 91 
-1.790754 1.362530 -8.626764 23 52 94 
-1.773447 1.364190 -8.637272 23 53 93 
-1.749696 1.360875 -8.616282 25 51 93 
-1.732360 1.362530 -8.626764 24 51 87 
-1.712895 1.362530 -8.626764 23 48 84 
-1.691373 1.360875 -8.616282 23 45 80 
-1.673966 1.362530 -8.626764 22 47 82 
-1.658537 1.365854 -8.647805 23 48 86 
-1.639024 1.365854 -8.647805 23 49 92 
-1.619512 1.365854 -8.647805 20 52 97 
-1.600000 1.365854 -8.647805 20 54 99 
-1.578563 1.364190 -8.637272 20 55 98 
-1.562882 1.367521 -8.658364 22 56 98 
-1.543346 1.367521 -8.658364 21 53 95 
-1.529412 1.372549 -8.690196 20 52 95 
-1.507956 1.370869 -8.679560 19 53 97 
-1.488372 1.370869 -8.679560 21 56 102 
-1.463415 1.365854 -8.647805 21 60 102 
-1.443902 1.365854 -8.647805 22 60 103 
-1.429621 1.370869 -8.679560 22 59 100 
-1.413497 1.374233 -8.700859 23 55 91 
-1.395577 1.375921 -8.711548 23 50 84 
-1.377614 1.377614 -8.722263 29 55 92 
-1.359606 1.379310 -8.733006 26 53 92 
-1.339901 1.379310 -8.733006 24 54 93 
-1.321825 1.381011 -8.743773 22 53 94 
-1.303704 1.382716 -8.754568 22 52 93 
-1.288724 1.387856 -8.787113 22 52 95 
-1.268897 1.387856 -8.787113 21 53 95 
-1.249071 1.387856 -8.787113 21 54 98 
-1.232298 1.391304 -8.808945 18 56 100 
-1.210918 1.389578 -8.798016 19 55 100 
-1.191067 1.389578 -8.798016 23 56 102 
-1.169765 1.387856 -8.787113 22 57 101 
-1.149938 1.387856 -8.787113 19 56 99 
-1.111663 1.389578 -8.798016 26 54 91 
-1.091811 1.389578 -8.798016 25 54 91 
-1.074627 1.393035 -8.819901 25 54 88 
-1.053416 1.391304 -8.808945 25 54 89 
-1.033540 1.391304 -8.808945 25 55 89 
-1.017456 1.396509 -8.841895 26 54 89 
-0.998752 1.398252 -8.852934 25 53 91 
-0.977556 1.396509 -8.841895 22 53 88 
-0.958802 1.398252 -8.852934 25 55 89 
-0.938826 1.398252 -8.852934 25 55 91 
-0.917706 1.396509 -8.841895 25 52 89 
-0.898876 1.398252 -8.852934 24 52 87 
-0.877805 1.396509 -8.841895 25 54 89 
-0.860000 1.400000 -8.864000 24 54 91 
-0.840000 1.400000 -8.864000 22 53 91 
-0.820000 1.400000 -8.864000 23 54 91 
-0.802005 1.403509 -8.886216 21 52 92 
-0.779026 1.398252 -8.852934 21 54 96 
-0.761905 1.403509 -8.886216 18 52 96 
-0.741855 1.403509 -8.886216 16 49 93 
-0.723618 1.407035 -8.908543 17 49 90 
-0.703518 1.407035 -8.908543 20 51 89 
-0.687737 1.415929 -8.964855 24 51 89 
-0.664987 1.410579 -8.930983 22 51 88 
-0.643216 1.407035 -8.908543 21 50 87 
-0.622334 1.405270 -8.897366 21 50 85 
-0.598504 1.396509 -8.841895 24 50 84 
-0.576398 1.391304 -8.808945 22 48 81 
-0.559301 1.398252 -8.852934 24 46 80 
-0.542714 1.407035 -8.908543 22 48 82 
-0.522613 1.407035 -8.908543 23 47 80 
-0.506971 1.419518 -8.987579 22 47 77 
-0.485461 1.415929 -8.964855 22 47 78 
-0.464646 1.414141 -8.953536 23 47 77 
-0.445570 1.417722 -8.976203 19 47 75 
-0.425856 1.419518 -8.987579 21 47 78 
-0.405063 1.417722 -8.976203 22 45 76 
-0.385787 1.421320 -8.998985 24 44 72 
-0.366412 1.424936 -9.021883 24 45 72 
-0.346497 1.426752 -9.033376 23 43 72 
-0.325700 1.424936 -9.021883 23 42 69 
-0.306905 1.432225 -9.068031 19 40 69 
-0.285350 1.426752 -9.033376 19 40 72 
-0.265306 1.428571 -9.044898 18 41 72 
-0.245211 1.430396 -9.056450 19 41 69 
-0.224777 1.430396 -9.056450 21 41 67 
-0.203822 1.426752 -9.033376 21 39 65 
-0.184143 1.432225 -9.068031 19 38 65 
-0.163474 1.430396 -9.056450 17 37 65 
-0.142494 1.424936 -9.021883 18 39 68 
-0.122293 1.426752 -9.033376 18 42 74 
-0.101911 1.426752 -9.033376 16 41 78 
-0.081218 1.421320 -8.998985 16 43 82 
-0.060991 1.423126 -9.010420 15 45 83 
-0.040764 1.426752 -9.033376 14 46 84 
-0.020434 1.430396 -9.056450 17 45 82 
0.000000 1.432225 -9.068031 18 44 80 
0.020460 1.432225 -9.068031 19 45 82 
0.041131 1.439589 -9.114654 20 46 81 
0.061617 1.437741 -9.102953 21 47 85 
0.082051 1.435897 -9.091282 20 47 84 
0.102696 1.437741 -9.102953 20 47 82 
0.123235 1.437741 -9.102953 22 46 78 
0.143590 1.435897 -9.091282 22 46 77 
0.164948 1.443299 -9.138144 19 46 80 
0.185806 1.445161 -9.149936 20 50 84 
0.206718 1.447028 -9.161757 20 48 83 
0.227097 1.445161 -9.149936 22 46 73 
0.248383 1.448900 -9.173610 23 42 68 
0.269082 1.448900 -9.173610 24 43 68 
0.290155 1.450777 -9.185493 21 36 56 
0.310078 1.447028 -9.161757 21 40 69 
0.329049 1.439589 -9.114654 46 61 79 
0.349166 1.437741 -9.102953 111 120 117 
0.365482 1.421320 -8.998985 121 131 121 
0.384810 1.417722 -8.976203 124 132 122 
0.405063 1.417722 -8.976203 123 132 122 
0.886650 2.821159 -17.861965 122 130 121 
0.934010 2.842640 -17.997971 120 128 121 
0.952854 2.779156 -17.596031 117 126 117 
1.007557 2.821159 -17.861965 110 121 112 
1.125628 2.814070 -17.817085 105 113 106 
1.482289 3.051771 -19.322071 94 105 101 
1.525886 3.051771 -19.322071 86 98 93 
1.569482 3.051771 -19.322071 86 96 93 
1.604336 3.035230 -19.217344 101 112 106 
1.926531 2.285714 -14.471837 50 63 88 
1.951220 2.276423 -14.413009 98 110 124 
1.979716 2.271805 -14.383773 56 70 90 
2.004040 2.262626 -14.325657 29 46 73 
2.040486 2.267206 -14.354656 28 45 74 
2.064516 2.258065 -14.296775 27 44 77 
2.105263 2.267206 -14.354656 44 57 82 
2.133333 2.262626 -14.325657 68 81 98 
2.156942 2.253521 -14.268008 40 56 81 
2.184739 2.248996 -14.239358 32 46 75 
2.203593 2.235529 -14.154092 30 45 75 
2.213439 2.213439 -14.014230 29 46 77 
2.249505 2.217822 -14.041981 36 50 78 
2.335306 2.209073 -13.986588 34 48 74 
2.366864 2.209073 -13.986588 36 50 77 
2.403162 2.213439 -14.014230 39 56 80 
2.444444 2.222222 -14.069841 43 61 86 
2.466403 2.213439 -14.014230 46 63 88 
2.507936 2.222222 -14.069841 60 75 96 
2.549801 2.231076 -14.125896 90 104 115 
2.581673 2.231076 -14.125896 73 90 104 
2.672032 2.253521 -14.268008 65 83 106 
2.709677 2.258065 -14.296775 71 86 105 
2.753036 2.267206 -14.354656 92 106 116 
2.779798 2.262626 -14.325657 77 91 105 
2.817814 2.267206 -14.354656 63 80 97 
2.861789 2.276423 -14.413009 77 94 108 
2.882591 2.267206 -14.354656 78 92 106 
6.375000 4.375000 -27.700001 29 34 29 
6.437500 4.375000 -27.700001 47 49 40 
6.500000 4.375000 -27.700001 75 76 66 
6.562500 4.375000 -27.700001 85 85 76 
6.625000 4.375000 -27.700001 70 71 63 
6.687500 4.375000 -27.700001 55 58 45 
6.750000 4.375000 -27.700001 50 52 41 
6.812500 4.375000 -27.700001 55 56 44 
6.875000 4.375000 -27.700001 64 66 53 
6.937500 4.375000 -27.700001 71 73 61 
7.000000 4.375000 -27.700001 72 73 63 
7.062500 4.375000 -27.700001 60 60 51 
7.125000 4.375000 -27.700001 44 46 36 
7.250000 4.375000 -27.700001 23 30 23 
7.312500 4.375000 -27.700001 18 23 19 
7.375000 4.375000 -27.700001 15 20 16 
7.437500 4.375000 -27.700001 16 19 15 
7.500000 4.375000 -27.700001 15 20 17 
3.438721 1.989343 -12.595383 16 20 19 
7.684588 4.014337 -25.416489 136 164 170 
7.854546 4.072727 -25.786182 142 170 176 
7.941606 4.087591 -25.880293 149 175 179 
7.942029 4.057971 -25.692755 151 177 181 
8.177778 4.148148 -26.263704 155 179 182 
8.144404 4.043321 -25.600000 167 189 191 
8.202166 4.043321 -25.600000 171 192 193 
8.289855 4.057971 -25.692755 174 194 195 
8.439561 4.102564 -25.975092 177 196 196 
8.498169 4.102564 -25.975092 177 197 198 
8.556777 4.102564 -25.975092 175 196 197 
8.678967 4.132841 -26.166790 169 191 194 
2.805430 1.266968 -8.021720 36 44 43 
2.836364 1.272727 -8.058182 31 37 37 
2.857793 1.274175 -8.067349 29 34 34 
2.866213 1.269841 -8.039909 25 34 33 
2.877828 1.266968 -8.021720 26 35 34 
2.886133 1.262683 -7.994589 28 36 35 
11.312500 4.375000 -27.700001 14 19 16 
11.375000 4.375000 -27.700001 22 24 18 
11.437500 4.375000 -27.700001 29 32 23 
11.500000 4.375000 -27.700001 35 39 30 
11.562500 4.375000 -27.700001 43 43 36 
11.625000 4.375000 -27.700001 44 48 40 
11.687500 4.375000 -27.700001 40 43 36 
8.064343 3.002681 -19.011261 32 34 30 
8.129032 3.010753 -19.062366 23 28 25 
8.128343 2.994653 -18.960428 25 39 38 
11.937500 4.375000 -27.700001 45 85 98 
12.000000 4.375000 -27.700001 62 120 145 
12.187500 4.375000 -27.700001 111 164 184 
12.250000 4.375000 -27.700001 119 177 201 
12.312500 4.375000 -27.700001 112 178 205 
12.375000 4.375000 -27.700001 105 173 204 
12.437500 4.375000 -27.700001 83 137 170 
12.500000 4.375000 -27.700001 60 81 92 
12.562500 4.375000 -27.700001 86 101 96 
12.625000 4.375000 -27.700001 122 145 147 
12.687500 4.375000 -27.700001 137 164 172 
12.875000 4.375000 -27.700001 163 188 193 
12.937500 4.375000 -27.700001 169 192 198 
13.000000 4.375000 -27.700001 172 194 201 
13.062500 4.375000 -27.700001 174 197 203 
13.125000 4.375000 -27.700001 175 198 205 
13.187500 4.375000 -27.700001 174 198 205 
13.250000 4.375000 -27.700001 173 198 203 
13.312500 4.375000 -27.700001 171 195 201 
13.375000 4.375000 -27.700001 151 176 188 
13.437500 4.375000 -27.700001 98 118 128 
13.500000 4.375000 -27.700001 78 91 91 
13.562500 4.375000 -27.700001 85 93 91 
13.625000 4.375000 -27.700001 86 95 93 
14.187500 4.375000 -27.700001 93 99 96 
-5.035533 1.868020 -11.998647 210 213 209 
-5.016949 1.871186 -12.018984 210 212 210 
-4.947899 1.855462 -11.917983 210 211 209 
-4.921009 1.855462 -11.917983 189 192 191 
-2.842353 1.298823 -8.342588 54 67 81 
-2.833530 1.303424 -8.372137 26 38 55 
-2.814640 1.303424 -8.372137 23 43 67 
-2.782609 1.297297 -8.332786 21 41 64 
-2.783432 1.306509 -8.391953 27 59 97 
-2.757969 1.303424 -8.372137 27 67 107 
-2.732627 1.300353 -8.352415 24 66 108 
-2.713781 1.300353 -8.352415 25 63 108 
-2.714116 1.309609 -8.411862 24 65 110 
-2.691943 1.308057 -8.401896 25 67 112 
-2.679335 1.311164 -8.421853 25 70 116 
-2.660332 1.311164 -8.421853 26 73 118 
-2.641330 1.311164 -8.421853 23 73 117 
-2.619217 1.309609 -8.411862 23 70 117 
-2.597156 1.308057 -8.401896 20 66 113 
-2.581257 1.309609 -8.411862 20 61 106 
-2.565321 1.311164 -8.421853 19 59 102 
-2.549346 1.312723 -8.431867 19 58 102 
-2.536353 1.315852 -8.451967 21 60 108 
-2.520286 1.317422 -8.462052 23 58 107 
-2.498212 1.315852 -8.451967 20 55 99 
-2.485066 1.318996 -8.472162 18 52 97 
-2.463007 1.317422 -8.462052 17 51 95 
-2.443914 1.317422 -8.462052 19 52 97 
-2.430622 1.320574 -8.482297 20 54 99 
-2.411483 1.320574 -8.482297 19 55 99 
-2.392344 1.320574 -8.482297 20 53 95 
-2.378897 1.323741 -8.502638 23 52 91 
-2.362545 1.325330 -8.512845 23 50 91 
-2.334928 1.320574 -8.482297 23 50 93 
-2.296651 1.320574 -8.482297 22 53 96 
-2.282974 1.323741 -8.502638 21 54 97 
-2.263789 1.323741 -8.502638 20 54 100 
-2.244604 1.323741 -8.502638 19 53 99 
-2.228091 1.325330 -8.512845 19 52 95 
-2.211539 1.326923 -8.523077 21 55 98 
-2.189676 1.325330 -8.512845 22 56 98 
-2.175692 1.328520 -8.533334 22 53 95 
-2.153846 1.326923 -8.523077 21 51 92 
-2.137184 1.328520 -8.533334 20 53 95 
-2.117930 1.328520 -8.533334 22 55 98 
-2.103740 1.331725 -8.553921 22 54 98 
-2.086957 1.333333 -8.564252 22 53 99 
-2.070133 1.334946 -8.574607 21 53 98 
-2.048309 1.333333 -8.564252 22 52 94 
-2.038835 1.339806 -8.605825 24 52 93 
-2.014528 1.336562 -8.584989 25 51 89 
-1.995157 1.336562 -8.584989 24 50 90 
-1.975787 1.336562 -8.584989 22 50 94 
-1.958788 1.338182 -8.595394 22 50 95 
-1.937046 1.336562 -8.584989 22 51 94 
-1.922330 1.339806 -8.605825 23 52 94 
-1.907543 1.343066 -8.626764 21 51 94 
-1.883495 1.339806 -8.605825 21 52 98 
-1.864078 1.339806 -8.605825 18 52 97 
-1.844660 1.339806 -8.605825 20 52 94 
-1.805825 1.339806 -8.605825 20 51 91 
-1.790754 1.343066 -8.626764 25 52 96 
-1.773447 1.344702 -8.637272 23 52 95 
-1.749696 1.341434 -8.616282 23 52 93 
-1.734470 1.344702 -8.637272 24 53 90 
-1.714982 1.344702 -8.637272 23 50 86 
-1.695493 1.344702 -8.637272 23 47 85 
-1.676005 1.344702 -8.637272 23 49 88 
-1.660562 1.347985 -8.658364 24 52 89 
-1.641026 1.347985 -8.658364 24 51 90 
-1.621490 1.347985 -8.658364 20 48 92 
-1.603912 1.349633 -8.668949 18 51 95 
-1.582418 1.347985 -8.658364 20 52 96 
-1.566707 1.351285 -8.679560 23 55 98 
-1.545232 1.349633 -8.668949 23 55 98 
-1.529412 1.352941 -8.690196 22 54 97 
-1.502439 1.346341 -8.647805 21 54 97 
-1.482927 1.346341 -8.647805 22 53 96 
-1.463415 1.346341 -8.647805 22 54 98 
-1.443902 1.346341 -8.647805 21 54 100 
-1.431373 1.352941 -8.690196 20 55 99 
-1.415233 1.356265 -8.711548 20 54 96 
-1.397294 1.357934 -8.722263 21 52 94 
-1.377614 1.357934 -8.722263 24 56 99 
-1.361282 1.361282 -8.743773 25 58 100 
-1.339901 1.359606 -8.733006 24 57 101 
-1.323457 1.362963 -8.754568 23 60 101 
-1.305315 1.364648 -8.765389 26 59 100 
-1.288724 1.368030 -8.787113 28 58 99 
-1.268897 1.368030 -8.787113 25 57 97 
-1.232298 1.371429 -8.808945 24 55 96 
-1.209418 1.368030 -8.787113 22 54 97 
-1.191067 1.369727 -8.798016 22 55 95 
-1.169765 1.368030 -8.787113 24 57 97 
-1.149938 1.368030 -8.787113 22 56 97 
-1.111663 1.369727 -8.798016 23 51 87 
-1.090459 1.368030 -8.787113 26 52 92 
-1.074627 1.373134 -8.819901 23 50 87 
-1.054726 1.373134 -8.819901 22 51 86 
-1.034826 1.373134 -8.819901 22 51 88 
-1.016189 1.374844 -8.830884 24 53 93 
-0.998752 1.378277 -8.852934 24 53 93 
-0.977556 1.376559 -8.841895 25 54 90 
-0.958802 1.378277 -8.852934 24 56 92 
-0.940000 1.380000 -8.864000 27 55 94 
-0.918851 1.378277 -8.852934 26 54 96 
-0.900000 1.380000 -8.864000 24 54 95 
-0.878901 1.378277 -8.852934 24 56 96 
-0.862155 1.383459 -8.886216 24 57 96 
-0.841051 1.381727 -8.875094 25 56 94 
-0.821026 1.381727 -8.875094 25 55 95 
-0.803011 1.385194 -8.897366 22 54 94 
-0.780000 1.380000 -8.864000 22 53 94 
-0.761905 1.383459 -8.886216 22 51 93 
-0.740926 1.381727 -8.875094 18 48 93 
-0.722710 1.385194 -8.897366 18 49 92 
-0.702635 1.385194 -8.897366 18 52 92 
-0.686002 1.392182 -8.942245 19 52 92 
-0.664151 1.388679 -8.919748 21 52 92 
-0.643216 1.386935 -8.908543 21 52 90 
-0.623899 1.388679 -8.919748 22 51 87 
-0.600751 1.381727 -8.875094 23 49 86 
-0.580000 1.380000 -8.864000 24 51 85 
-0.546144 1.395702 -8.964855 25 49 83 
-0.527250 1.399240 -8.987579 24 48 80 
-0.507614 1.401015 -8.998985 24 47 78 
-0.487310 1.401015 -8.998985 22 46 77 
-0.465234 1.395702 -8.964855 23 47 78 
-0.446134 1.399240 -8.987579 22 45 77 
-0.425856 1.399240 -8.987579 23 45 73 
-0.405577 1.399240 -8.987579 23 44 71 
-0.385787 1.401015 -8.998985 23 44 72 
-0.366412 1.404580 -9.021883 24 44 74 
-0.346939 1.408163 -9.044898 25 44 74 
-0.326115 1.406369 -9.033376 23 43 73 
-0.306905 1.411765 -9.068031 19 41 73 
-0.285714 1.408163 -9.044898 17 41 73 
-0.265985 1.411765 -9.068031 19 41 72 
-0.246154 1.415385 -9.091282 21 42 71 
-0.226221 1.419023 -9.114654 21 40 69 
-0.204342 1.409962 -9.056450 21 40 68 
-0.184615 1.415385 -9.091282 20 42 69 
-0.163474 1.409962 -9.056450 22 41 71 
-0.143040 1.409962 -9.056450 20 40 72 
-0.122137 1.404580 -9.021883 17 42 74 
-0.102171 1.409962 -9.056450 16 43 78 
-0.081529 1.406369 -9.033376 16 43 82 
-0.061224 1.408163 -9.044898 15 41 81 
-0.040764 1.406369 -9.033376 15 42 82 
-0.020460 1.411765 -9.068031 17 44 80 
0.000000 1.411765 -9.068031 18 43 79 
0.020513 1.415385 -9.091282 19 44 82 
0.041237 1.422680 -9.138144 17 44 84 
0.061697 1.419023 -9.114654 19 45 85 
0.082157 1.417202 -9.102953 17 45 82 
0.102696 1.417202 -9.102953 18 46 83 
0.123393 1.419023 -9.114654 20 45 81 
0.143774 1.417202 -9.102953 19 45 79 
0.185806 1.424516 -9.149936 22 47 81 
0.206986 1.428202 -9.173610 19 47 80 
0.227097 1.424516 -9.149936 22 45 76 
0.248383 1.428202 -9.173610 23 42 73 
0.269430 1.430052 -9.185493 23 41 67 
0.290155 1.430052 -9.185493 20 38 59 
0.310078 1.426357 -9.161757 22 43 72 
0.329049 1.419023 -9.114654 48 63 80 
0.348718 1.415385 -9.091282 113 120 120 
0.365482 1.401015 -8.998985 122 130 123 
0.384810 1.397468 -8.976203 123 132 123 
0.405063 1.397468 -8.976203 125 133 123 
0.888889 2.787879 -17.907072 123 130 122 
0.934010 2.802031 -17.997971 121 128 122 
0.955224 2.746269 -17.639801 118 127 118 
1.010101 2.787879 -17.907072 111 121 114 
1.128464 2.780856 -17.861965 104 112 108 
1.486339 3.016393 -19.374865 92 105 101 
1.530055 3.016393 -19.374865 87 98 94 
1.569482 3.008174 -19.322071 86 97 90 
1.608696 3.000000 -19.269566 103 110 106 
1.951220 2.243902 -14.413009 95 107 117 
1.983740 2.243902 -14.413009 69 85 101 
2.008097 2.234818 -14.354656 51 72 93 
2.040486 2.234818 -14.354656 52 72 93 
2.064516 2.225806 -14.296775 53 73 95 
2.105263 2.234818 -14.354656 60 77 94 
2.129032 2.225806 -14.296775 79 93 106 
2.156942 2.221328 -14.268008 69 87 102 
2.184739 2.216867 -14.239358 61 82 100 
2.208000 2.208000 -14.182401 58 77 96 
2.222222 2.190476 -14.069841 54 70 92 
2.253968 2.190476 -14.069841 51 64 86 
2.272189 2.177515 -13.986588 70 81 93 
2.335306 2.177515 -13.986588 58 72 88 
2.362205 2.173228 -13.959056 60 76 91 
2.398422 2.177515 -13.986588 70 84 99 
2.434783 2.181818 -14.014230 88 103 116 
2.456693 2.173228 -13.959056 82 97 109 
2.498024 2.181818 -14.014230 86 98 109 
2.554890 2.203593 -14.154092 91 103 111 
2.581673 2.199203 -14.125896 80 94 103 
2.634538 2.216867 -14.239358 89 100 111 
2.672032 2.221328 -14.268008 107 119 127 
2.704225 2.221328 -14.268008 95 107 116 
2.747475 2.230303 -14.325657 80 92 105 
2.774194 2.225806 -14.296775 64 77 95 
2.812121 2.230303 -14.325657 61 74 93 
2.850202 2.234818 -14.354656 89 100 111 
2.870968 2.225806 -14.296775 74 85 101 
6.375000 4.312500 -27.700001 30 33 30 
6.437500 4.312500 -27.700001 43 47 40 
6.500000 4.312500 -27.700001 70 73 62 
6.562500 4.312500 -27.700001 83 84 74 
6.625000 4.312500 -27.700001 68 71 62 
6.687500 4.312500 -27.700001 55 60 49 
6.750000 4.312500 -27.700001 50 53 44 
6.812500 4.312500 -27.700001 52 55 44 
6.875000 4.312500 -27.700001 62 65 51 
6.937500 4.312500 -27.700001 69 71 57 
7.000000 4.312500 -27.700001 71 71 61 
7.062500 4.312500 -27.700001 60 61 52 
7.250000 4.312500 -27.700001 26 29 25 
7.312500 4.312500 -27.700001 18 23 19 
7.375000 4.312500 -27.700001 16 20 17 
7.437500 4.312500 -27.700001 15 19 16 
7.500000 4.312500 -27.700001 15 19 18 
7.562500 4.312500 -27.700001 18 20 19 
7.657143 3.942857 -25.325714 137 164 169 
7.797834 3.985559 -25.600000 143 171 174 
7.884058 4.000000 -25.692755 150 176 179 
7.942029 4.000000 -25.692755 154 178 182 
8.058394 4.029197 -25.880293 154 180 182 
8.086642 3.985559 -25.600000 162 184 187 
8.173913 4.000000 -25.692755 166 188 189 
8.231884 4.000000 -25.692755 170 191 192 
8.289855 4.000000 -25.692755 171 194 194 
8.408759 4.029197 -25.880293 173 195 196 
8.467154 4.029197 -25.880293 174 194 197 
8.525547 4.029197 -25.880293 173 194 196 
8.615385 4.043956 -25.975092 167 189 192 
2.802260 1.247458 -8.012655 38 45 48 
2.833144 1.253121 -8.049035 32 38 38 
2.851305 1.253121 -8.049035 29 34 34 
2.862967 1.250283 -8.030805 28 34 34 
2.874576 1.247458 -8.012655 27 34 34 
2.882883 1.243243 -7.985586 28 35 36 
11.312500 4.312500 -27.700001 16 19 17 
11.375000 4.312500 -27.700001 19 23 17 
11.437500 4.312500 -27.700001 24 28 23 
11.500000 4.312500 -27.700001 33 35 28 
11.562500 4.312500 -27.700001 42 42 32 
11.625000 4.312500 -27.700001 45 47 39 
11.687500 4.312500 -27.700001 42 44 36 
8.086021 2.967742 -19.062366 34 36 30 
8.150944 2.975741 -19.113747 26 30 27 
8.172043 2.967742 -19.062366 21 32 30 
8.193029 2.959785 -19.011261 37 70 77 
12.000000 4.312500 -27.700001 54 111 134 
12.062500 4.312500 -27.700001 70 132 160 
12.187500 4.312500 -27.700001 104 159 180 
12.250000 4.312500 -27.700001 120 175 197 
12.312500 4.312500 -27.700001 114 178 203 
12.375000 4.312500 -27.700001 108 176 203 
12.437500 4.312500 -27.700001 90 152 185 
12.500000 4.312500 -27.700001 61 92 110 
12.562500 4.312500 -27.700001 73 88 85 
12.625000 4.312500 -27.700001 114 133 133 
12.687500 4.312500 -27.700001 136 161 168 
12.875000 4.312500 -27.700001 161 185 191 
12.937500 4.312500 -27.700001 165 190 197 
13.000000 4.312500 -27.700001 170 193 199 
13.062500 4.312500 -27.700001 173 196 201 
13.125000 4.312500 -27.700001 174 197 202 
13.187500 4.312500 -27.700001 174 197 203 
13.250000 4.312500 -27.700001 173 196 203 
13.312500 4.312500 -27.700001 173 195 201 
13.375000 4.312500 -27.700001 164 187 195 
13.437500 4.312500 -27.700001 120 139 151 
13.500000 4.312500 -27.700001 89 99 101 
13.562500 4.312500 -27.700001 88 97 94 
13.625000 4.312500 -27.700001 89 97 95 
13.687500 4.312500 -27.700001 90 97 96 
13.750000 4.312500 -27.700001 90 98 96 
-5.035533 1.840948 -11.998647 211 214 209 
-5.008460 1.840948 -11.998647 211 214 209 
-4.939597 1.825503 -11.897987 210 212 208 
-4.904522 1.822446 -11.878057 189 192 189 
-2.839013 1.278496 -8.332786 52 65 81 
-2.833530 1.284534 -8.372137 26 39 60 
-2.817967 1.286052 -8.382033 24 46 72 
-2.782609 1.278496 -8.332786 21 41 63 
-2.786730 1.289100 -8.401896 27 52 83 
-2.761229 1.286052 -8.382033 23 59 93 
-2.735849 1.283019 -8.362265 23 61 97 
-2.716981 1.283019 -8.362265 22 57 93 
-2.717340 1.292161 -8.421853 24 63 102 
-2.698337 1.292161 -8.421853 24 61 103 
-2.682521 1.293698 -8.431867 23 64 109 
-2.660332 1.292161 -8.421853 24 69 112 
-2.638197 1.290629 -8.411862 24 72 114 
-2.619217 1.290629 -8.411862 21 72 116 
-2.597156 1.289100 -8.401896 21 71 113 
-2.581257 1.290629 -8.411862 20 64 108 
-2.565321 1.292161 -8.421853 21 59 104 
-2.549346 1.293698 -8.431867 23 61 107 
-2.536353 1.296782 -8.451967 21 63 109 
-2.520286 1.298329 -8.462052 20 64 111 
-2.498212 1.296782 -8.451967 18 65 111 
-2.485066 1.299881 -8.472162 19 62 106 
-2.465950 1.299881 -8.472162 19 57 101 
-2.446834 1.299881 -8.472162 19 54 100 
-2.433533 1.302994 -8.492455 22 58 104 
-2.411483 1.301435 -8.482297 22 58 107 
-2.395210 1.302994 -8.492455 21 56 103 
-2.378897 1.304556 -8.502638 21 51 93 
-2.365385 1.307692 -8.523077 23 51 93 
-2.337724 1.302994 -8.492455 24 52 96 
-2.343826 1.317191 -8.584989 23 52 94 
-2.296651 1.301435 -8.482297 24 51 95 
-2.285714 1.306122 -8.512845 23 50 92 
-2.263789 1.304556 -8.502638 18 50 94 
-2.250000 1.307692 -8.523077 18 50 93 
-2.228091 1.306122 -8.512845 18 48 92 
-2.214200 1.309266 -8.533334 19 50 94 
-2.189676 1.306122 -8.512845 18 52 99 
-2.178313 1.310843 -8.543614 21 52 99 
-2.153846 1.307692 -8.523077 21 50 95 
-2.139759 1.310843 -8.543614 19 52 95 
-2.117930 1.309266 -8.533334 22 57 101 
-2.106280 1.314010 -8.564252 23 58 103 
-2.086957 1.314010 -8.564252 23 58 104 
-2.072639 1.317191 -8.584989 23 57 103 
-2.050786 1.315599 -8.574607 23 56 101 
-2.041312 1.321993 -8.616282 24 58 102 
-2.016970 1.318788 -8.595394 24 55 98 
-1.995157 1.317191 -8.584989 25 55 95 
-1.978182 1.318788 -8.595394 24 57 100 
-1.961165 1.320388 -8.605825 23 56 101 
-1.939394 1.318788 -8.595394 22 54 98 
-1.922330 1.320388 -8.605825 21 53 96 
-1.909866 1.325213 -8.637272 22 53 95 
-1.885784 1.321993 -8.616282 20 51 91 
-1.866343 1.321993 -8.616282 18 47 89 
-1.846902 1.321993 -8.616282 20 50 95 
-1.827461 1.321993 -8.616282 20 49 93 
-1.805825 1.320388 -8.605825 21 48 92 
-1.790754 1.323601 -8.626764 20 50 97 
-1.769137 1.321993 -8.616282 18 52 97 
-1.749696 1.321993 -8.616282 17 52 96 
-1.734470 1.325213 -8.637272 20 53 97 
-1.714982 1.325213 -8.637272 22 52 93 
-1.697561 1.326829 -8.647805 23 52 92 
-1.680098 1.328449 -8.658364 22 52 93 
-1.662592 1.330073 -8.668949 25 52 93 
-1.643032 1.330073 -8.668949 24 52 91 
-1.621490 1.328449 -8.658364 25 51 92 
-1.605875 1.331701 -8.679560 22 48 91 
-1.584352 1.330073 -8.668949 19 48 90 
-1.568627 1.333333 -8.690196 18 52 96 
-1.545232 1.330073 -8.668949 18 53 98 
-1.531288 1.334969 -8.700859 20 55 101 
-1.502439 1.326829 -8.647805 23 58 104 
-1.484738 1.328449 -8.658364 22 59 99 
-1.463415 1.326829 -8.647805 23 57 99 
-1.445665 1.328449 -8.658364 22 57 100 
-1.431373 1.333333 -8.690196 21 55 96 
-1.415233 1.336609 -8.711548 21 52 92 
-1.397294 1.338253 -8.722263 19 51 91 
-1.377614 1.338253 -8.722263 20 53 97 
-1.361282 1.341554 -8.743773 22 55 98 
-1.341554 1.341554 -8.743773 21 54 101 
-1.323457 1.343210 -8.754568 22 57 102 
-1.305315 1.344870 -8.765389 24 59 104 
-1.288724 1.348203 -8.787113 26 61 104 
-1.267327 1.346535 -8.776237 26 62 103 
-1.249071 1.348203 -8.787113 28 60 99 
-1.232298 1.351553 -8.808945 28 58 99 
-1.210918 1.349876 -8.798016 26 57 99 
-1.192547 1.351553 -8.808945 26 57 96 
-1.169765 1.348203 -8.787113 25 58 98 
-1.149938 1.348203 -8.787113 24 57 98 
-1.131514 1.349876 -8.798016 23 54 90 
-1.113043 1.351553 -8.808945 24 55 91 
-1.090459 1.348203 -8.787113 24 55 93 
-1.075965 1.354919 -8.830884 24 52 89 
-1.056040 1.354919 -8.830884 22 50 85 
-1.036115 1.354919 -8.830884 22 47 83 
-1.017456 1.356609 -8.841895 23 51 90 
-1.001252 1.361702 -8.875094 21 51 91 
-0.978777 1.358302 -8.852934 22 51 89 
-0.958802 1.358302 -8.852934 23 52 92 
-0.940000 1.360000 -8.864000 22 53 93 
-0.917706 1.356609 -8.841895 23 52 94 
-0.901126 1.361702 -8.875094 23 53 96 
-0.878901 1.358302 -8.852934 22 56 100 
-0.863237 1.365119 -8.897366 22 57 100 
-0.842105 1.363409 -8.886216 22 57 98 
-0.825157 1.368553 -8.919748 20 55 98 
-0.805031 1.368553 -8.919748 19 53 97 
-0.780000 1.360000 -8.864000 18 53 94 
-0.761905 1.363409 -8.886216 19 53 95 
-0.740926 1.361702 -8.875094 20 52 94 
-0.722710 1.365119 -8.897366 21 54 95 
-0.700876 1.361702 -8.875094 22 54 96 
-0.683417 1.366834 -8.908543 21 56 94 
-0.662484 1.365119 -8.897366 21 55 94 
-0.642409 1.365119 -8.897366 22 54 95 
-0.623116 1.366834 -8.908543 21 52 93 
-0.601504 1.363409 -8.886216 24 54 93 
-0.582915 1.366834 -8.908543 21 52 91 
-0.566372 1.375474 -8.964855 21 50 87 
-0.547529 1.378961 -8.987579 21 49 86 
-0.527919 1.380711 -8.998985 23 50 85 
-0.507614 1.380711 -8.998985 24 52 88 
-0.487310 1.380711 -8.998985 23 52 87 
-0.465823 1.377215 -8.976203 22 51 86 
-0.446134 1.378961 -8.987579 23 49 85 
-0.425856 1.378961 -8.987579 22 47 77 
-0.406091 1.380711 -8.998985 23 46 73 
-0.386768 1.384224 -9.021883 22 43 73 
-0.366879 1.385987 -9.033376 24 45 76 
-0.346939 1.387755 -9.044898 22 44 74 
-0.326531 1.387755 -9.044898 21 42 70 
-0.306513 1.389527 -9.056450 19 42 71 
-0.285714 1.387755 -9.044898 18 45 73 
-0.265645 1.389527 -9.056450 19 44 75 
-0.245524 1.391304 -9.068031 21 43 72 
-0.225352 1.393086 -9.079641 23 42 72 
-0.203822 1.385987 -9.033376 22 44 75 
-0.184379 1.393086 -9.079641 21 44 75 
-0.163057 1.385987 -9.033376 19 43 75 
-0.143406 1.393086 -9.079641 20 41 76 
-0.122137 1.384224 -9.021883 19 42 78 
-0.102433 1.393086 -9.079641 17 43 75 
-0.081737 1.389527 -9.056450 16 42 77 
-0.061381 1.391304 -9.068031 15 42 77 
-0.040764 1.385987 -9.033376 17 43 78 
0.000000 1.389527 -9.056450 18 44 82 
0.041237 1.402062 -9.138144 18 46 86 
0.061856 1.402062 -9.138144 17 45 85 
0.082262 1.398458 -9.114654 17 45 82 
0.102828 1.398458 -9.114654 19 45 81 
0.123393 1.398458 -9.114654 18 43 80 
0.185806 1.403871 -9.149936 19 46 84 
0.206986 1.407503 -9.173610 20 47 83 
0.227097 1.403871 -9.149936 20 48 83 
0.248383 1.407503 -9.173610 21 48 81 
0.269430 1.409326 -9.185493 21 43 69 
0.290532 1.411154 -9.197406 21 38 59 
0.310078 1.405685 -9.161757 22 45 75 
0.329472 1.400257 -9.126384 49 66 82 
0.348718 1.394872 -9.091282 112 122 118 
0.365019 1.378961 -8.987579 123 131 121 
0.384810 1.377215 -8.976203 124 132 122 
0.404551 1.375474 -8.964855 124 132 123 
0.888889 2.747475 -17.907072 124 130 122 
0.934010 2.761421 -17.997971 120 129 119 
0.952854 2.699752 -17.596031 116 126 119 
1.010101 2.747475 -17.907072 113 121 114 
1.128464 2.740554 -17.861965 104 112 106 
1.490411 2.980822 -19.427946 94 104 100 
1.534247 2.980822 -19.427946 88 98 95 
1.573771 2.972678 -19.374865 86 96 93 
1.613079 2.964578 -19.322071 103 109 107 
1.947262 2.206897 -14.383773 98 112 121 
1.983740 2.211382 -14.413009 105 122 130 
2.008097 2.202429 -14.354656 111 128 136 
2.040486 2.202429 -14.354656 107 124 132 
2.060362 2.189135 -14.268008 103 118 126 
2.105263 2.202429 -14.354656 94 108 117 
2.124748 2.189135 -14.268008 100 113 119 
2.161290 2.193548 -14.296775 111 123 130 
2.180361 2.180361 -14.210822 109 124 128 
2.212425 2.180361 -14.210822 98 111 116 
2.231076 2.167331 -14.125896 91 103 112 
2.262948 2.167331 -14.125896 70 86 99 
2.285714 2.158730 -14.069841 56 69 87 
2.331337 2.171657 -14.154092 51 64 82 
2.349206 2.158730 -14.069841 62 73 88 
2.366864 2.145957 -13.986588 71 81 95 
2.403162 2.150198 -14.014230 67 77 94 
2.434783 2.150198 -14.014230 89 100 110 
2.456693 2.141732 -13.959056 70 83 95 
2.498024 2.150198 -14.014230 54 67 87 
2.554890 2.171657 -14.154092 50 63 86 
2.581673 2.167331 -14.125896 49 62 86 
2.639839 2.189135 -14.268008 60 73 92 
2.672032 2.189135 -14.268008 82 94 107 
2.698795 2.184739 -14.239358 63 74 92 
2.747475 2.197980 -14.325657 45 60 86 
2.774194 2.193548 -14.296775 41 55 84 
2.812121 2.197980 -14.325657 42 58 86 
2.838710 2.193548 -14.296775 76 88 106 
6.437500 4.250000 -27.700001 41 44 36 
6.500000 4.250000 -27.700001 67 70 59 
6.562500 4.250000 -27.700001 82 83 73 
6.625000 4.250000 -27.700001 69 73 62 
6.687500 4.250000 -27.700001 57 60 49 
6.750000 4.250000 -27.700001 52 54 44 
6.812500 4.250000 -27.700001 54 56 43 
6.875000 4.250000 -27.700001 61 64 50 
6.937500 4.250000 -27.700001 67 70 58 
7.000000 4.250000 -27.700001 70 71 59 
7.062500 4.250000 -27.700001 59 61 51 
7.250000 4.250000 -27.700001 26 30 24 
7.312500 4.250000 -27.700001 20 24 19 
7.375000 4.250000 -27.700001 16 19 17 
7.437500 4.250000 -27.700001 15 19 16 
7.500000 4.250000 -27.700001 17 19 18 
7.562500 4.250000 -27.700001 16 20 19 
7.741935 3.899642 -25.416489 138 165 170 
7.827338 3.913669 -25.507914 146 171 174 
7.856631 3.899642 -25.416489 151 176 178 
7.913979 3.899642 -25.416489 154 179 181 
8.115942 3.942029 -25.692755 163 185 189 
8.203636 3.956364 -25.786182 165 188 189 
8.261818 3.956364 -25.786182 166 189 191 
8.289855 3.942029 -25.692755 171 193 194 
8.378181 3.956364 -25.786182 173 195 195 
8.436363 3.956364 -25.786182 173 194 196 
8.494545 3.956364 -25.786182 172 194 196 
8.583941 3.970803 -25.880293 164 189 193 
2.799097 1.227991 -8.003612 39 46 48 
2.826727 1.232163 -8.030805 33 39 40 
2.844847 1.232163 -8.030805 27 35 36 
2.859729 1.230769 -8.021720 26 35 33 
2.868095 1.226606 -7.994589 27 35 32 
2.879640 1.223847 -7.976603 29 35 35 
11.312500 4.250000 -27.700001 16 20 17 
11.375000 4.250000 -27.700001 17 21 16 
11.437500 4.250000 -27.700001 24 24 22 
11.500000 4.250000 -27.700001 32 31 29 
11.562500 4.250000 -27.700001 39 39 34 
11.625000 4.250000 -27.700001 44 45 38 
11.687500 4.250000 -27.700001 42 44 37 
8.042781 2.909091 -18.960428 36 37 33 
8.129032 2.924731 -19.062366 28 30 29 
8.150134 2.916890 -19.011261 22 27 26 
8.171123 2.909091 -18.960428 34 55 58 
12.000000 4.250000 -27.700001 50 102 122 
12.062500 4.250000 -27.700001 63 127 156 
12.187500 4.250000 -27.700001 100 157 180 
12.250000 4.250000 -27.700001 117 171 193 
12.312500 4.250000 -27.700001 116 178 202 
12.375000 4.250000 -27.700001 110 176 204 
12.437500 4.250000 -27.700001 97 163 195 
12.500000 4.250000 -27.700001 68 109 135 
12.562500 4.250000 -27.700001 66 79 82 
12.625000 4.250000 -27.700001 103 119 118 
12.687500 4.250000 -27.700001 130 156 161 
12.875000 4.250000 -27.700001 159 185 190 
12.937500 4.250000 -27.700001 164 189 196 
13.000000 4.250000 -27.700001 169 192 198 
13.062500 4.250000 -27.700001 170 193 200 
13.125000 4.250000 -27.700001 172 196 201 
13.187500 4.250000 -27.700001 174 197 204 
13.250000 4.250000 -27.700001 174 198 205 
13.312500 4.250000 -27.700001 174 198 204 
13.375000 4.250000 -27.700001 169 193 200 
13.437500 4.250000 -27.700001 137 158 170 
13.500000 4.250000 -27.700001 95 107 112 
13.562500 4.250000 -27.700001 91 97 97 
13.625000 4.250000 -27.700001 90 98 96 
13.687500 4.250000 -27.700001 91 97 96 
13.750000 4.250000 -27.700001 90 98 95 
-5.035533 1.813875 -11.998647 211 213 210 
-5.008460 1.813875 -11.998647 211 213 209 
-4.931323 1.795645 -11.878057 211 213 208 
-4.896321 1.792642 -11.858194 189 192 188 
-2.839013 1.259694 -8.332786 52 65 81 
-2.833530 1.265643 -8.372137 26 39 60 
-2.817967 1.267139 -8.382033 23 46 75 
-2.785882 1.261176 -8.342588 21 42 62 
-2.786730 1.270142 -8.401896 26 52 83 
-2.764497 1.268639 -8.391953 23 58 96 
-2.739079 1.265643 -8.372137 22 58 96 
-2.716981 1.264151 -8.362265 21 58 95 
-2.717340 1.273159 -8.421853 23 62 101 
-2.698337 1.273159 -8.421853 23 60 102 
-2.685714 1.276191 -8.441905 24 64 107 
-2.657177 1.271649 -8.411862 23 65 109 
-2.638197 1.271649 -8.411862 23 66 109 
-2.616114 1.270142 -8.401896 23 70 113 
-2.594083 1.268639 -8.391953 24 71 113 
-2.581257 1.271649 -8.411862 22 69 111 
-2.568371 1.274673 -8.431867 20 64 107 
-2.549346 1.274673 -8.431867 23 64 109 
-2.536353 1.277712 -8.451967 22 66 109 
-2.520286 1.279236 -8.462052 20 65 108 
-2.501193 1.279236 -8.462052 20 63 108 
-2.485066 1.280765 -8.472162 20 64 108 
-2.468899 1.282297 -8.482297 20 60 103 
-2.449761 1.282297 -8.482297 23 60 104 
-2.436451 1.285372 -8.502638 25 67 113 
-2.414371 1.283832 -8.492455 26 69 117 
-2.395210 1.283832 -8.492455 23 67 114 
-2.378897 1.285372 -8.502638 21 61 106 
-2.365385 1.288462 -8.523077 20 58 103 
-2.334928 1.282297 -8.482297 20 58 102 
-2.340991 1.296252 -8.574607 22 56 102 
-2.302158 1.285372 -8.502638 20 54 101 
-2.291215 1.290012 -8.533334 21 53 95 
-2.266507 1.286915 -8.512845 22 51 93 
-2.252707 1.290012 -8.533334 20 50 91 
-2.230769 1.288462 -8.523077 18 46 84 
-2.214200 1.290012 -8.533334 17 45 86 
-2.187050 1.285372 -8.502638 17 48 92 
-2.178313 1.291566 -8.543614 16 50 95 
-2.153846 1.288462 -8.523077 17 50 93 
-2.139759 1.291566 -8.543614 19 51 93 
-2.117930 1.290012 -8.533334 20 54 99 
-2.108827 1.296252 -8.574607 21 56 102 
-2.084439 1.293124 -8.553921 22 58 105 
-2.072639 1.297821 -8.584989 22 59 105 
-2.045838 1.293124 -8.553921 21 57 104 
-2.038835 1.300971 -8.605825 21 58 104 
-2.014528 1.297821 -8.584989 23 56 102 
-1.995157 1.297821 -8.584989 24 57 101 
-1.978182 1.299394 -8.595394 24 58 106 
-1.961165 1.300971 -8.605825 24 59 105 
-1.937046 1.297821 -8.584989 23 57 105 
-1.922330 1.300971 -8.605825 23 56 104 
-1.907543 1.304136 -8.626764 23 57 103 
-1.883495 1.300971 -8.605825 22 55 99 
-1.868613 1.304136 -8.626764 19 51 95 
-1.849148 1.304136 -8.626764 22 53 100 
-1.829684 1.304136 -8.626764 24 52 95 
-1.808019 1.302552 -8.616282 21 48 89 
-1.792935 1.305725 -8.637272 18 48 94 
-1.771290 1.304136 -8.626764 15 50 98 
-1.749696 1.302552 -8.616282 15 52 98 
-1.734470 1.305725 -8.637272 17 53 98 
-1.717073 1.307317 -8.647805 17 52 97 
-1.697561 1.307317 -8.647805 23 50 92 
-1.680098 1.308913 -8.658364 23 53 95 
-1.662592 1.310513 -8.668949 26 54 94 
-1.643032 1.310513 -8.668949 24 51 94 
-1.621490 1.308913 -8.658364 22 52 95 
-1.605875 1.312117 -8.679560 25 52 90 
-1.584352 1.310513 -8.668949 21 46 82 
-1.566707 1.312117 -8.679560 20 47 87 
-1.547124 1.312117 -8.679560 17 50 97 
-1.535055 1.318573 -8.722263 17 53 100 
-1.507956 1.312117 -8.679560 20 56 101 
-1.486553 1.310513 -8.668949 21 59 103 
-1.466993 1.310513 -8.668949 21 57 100 
-1.447433 1.310513 -8.668949 21 57 101 
-1.433129 1.315337 -8.700859 23 57 99 
-1.415233 1.316953 -8.711548 23 53 91 
-1.397294 1.318573 -8.722263 22 48 83 
-1.377614 1.318573 -8.722263 26 55 95 
-1.361282 1.321825 -8.743773 24 56 97 
-1.341554 1.321825 -8.743773 24 56 97 
-1.321825 1.321825 -8.743773 20 55 97 
-1.303704 1.323457 -8.754568 20 56 100 
-1.287129 1.326733 -8.776237 22 58 101 
-1.267327 1.326733 -8.776237 23 59 103 
-1.247525 1.326733 -8.776237 24 60 102 
-1.230769 1.330025 -8.798016 23 59 100 
-1.210918 1.330025 -8.798016 23 59 103 
-1.192547 1.331677 -8.808945 24 59 103 
-1.171216 1.330025 -8.798016 24 60 104 
-1.151365 1.330025 -8.798016 26 59 102 
-1.132919 1.331677 -8.808945 25 59 96 
-1.113043 1.331677 -8.808945 26 58 97 
-1.091811 1.330025 -8.798016 26 57 98 
-1.075965 1.334994 -8.830884 25 56 97 
-1.056040 1.334994 -8.830884 24 55 91 
-1.034826 1.333333 -8.819901 23 53 88 
-1.016189 1.334994 -8.830884 28 55 93 
-1.001252 1.341677 -8.875094 26 55 94 
-0.977556 1.336658 -8.841895 26 56 95 
-0.958802 1.338327 -8.852934 25 58 97 
-0.937656 1.336658 -8.841895 25 57 97 
-0.914286 1.331677 -8.808945 25 57 99 
-0.898876 1.338327 -8.852934 25 56 97 
-0.877805 1.336658 -8.841895 21 55 96 
-0.863237 1.345044 -8.897366 18 56 97 
-0.844221 1.346734 -8.908543 19 56 98 
-0.827238 1.351828 -8.942245 20 57 98 
-0.808081 1.353535 -8.953536 20 56 98 
-0.783920 1.346734 -8.908543 21 57 96 
-0.762861 1.345044 -8.897366 21 56 98 
-0.740926 1.341677 -8.875094 19 54 97 
-0.720901 1.341677 -8.875094 18 54 95 
-0.699126 1.338327 -8.852934 20 55 96 
-0.681704 1.343358 -8.886216 22 56 96 
-0.660826 1.341677 -8.875094 22 55 95 
-0.640801 1.341677 -8.875094 22 52 92 
-0.621554 1.343358 -8.886216 24 53 90 
-0.601504 1.343358 -8.886216 27 55 92 
-0.584383 1.350126 -8.930983 25 56 92 
-0.566372 1.355247 -8.964855 25 55 91 
-0.547529 1.358682 -8.987579 21 54 90 
-0.527919 1.360406 -8.998985 22 51 88 
-0.507614 1.360406 -8.998985 25 54 91 
-0.487310 1.360406 -8.998985 21 55 91 
-0.465823 1.356962 -8.976203 21 55 93 
-0.446134 1.358682 -8.987579 21 54 91 
-0.425856 1.358682 -8.987579 23 50 85 
-0.406607 1.362135 -9.010420 22 49 82 
-0.386768 1.363868 -9.021883 25 49 83 
-0.367347 1.367347 -9.044898 23 50 83 
-0.347382 1.369093 -9.056450 22 47 80 
-0.326948 1.369093 -9.056450 21 45 79 
-0.306122 1.367347 -9.044898 19 44 79 
-0.285350 1.365605 -9.033376 19 44 76 
-0.264968 1.365605 -9.033376 20 43 76 
-0.244586 1.365605 -9.033376 19 43 74 
-0.224777 1.369093 -9.056450 19 43 70 
-0.204342 1.369093 -9.056450 22 42 73 
-0.183908 1.369093 -9.056450 20 44 75 
-0.163474 1.369093 -9.056450 21 44 75 
-0.143590 1.374359 -9.091282 23 44 78 
-0.122137 1.363868 -9.021883 21 46 80 
-0.102433 1.372599 -9.079641 21 45 78 
-0.081841 1.370844 -9.068031 21 42 76 
-0.061381 1.370844 -9.068031 21 42 75 
-0.040712 1.363868 -9.021883 18 43 76 
0.000000 1.370844 -9.068031 18 44 82 
0.020619 1.381443 -9.138144 17 44 80 
0.041290 1.383226 -9.149936 17 46 83 
0.061935 1.383226 -9.149936 17 45 84 
0.082368 1.379665 -9.126384 18 42 81 
0.102960 1.379665 -9.126384 18 43 80 
0.123393 1.377892 -9.114654 17 43 81 
0.144144 1.379665 -9.126384 18 45 82 
0.185806 1.383226 -9.149936 19 45 83 
0.206986 1.386805 -9.173610 21 44 78 
0.227097 1.383226 -9.149936 22 45 82 
0.248383 1.386805 -9.173610 21 48 81 
0.269430 1.388601 -9.185493 20 42 71 
0.290532 1.390402 -9.197406 21 38 62 
0.310078 1.385013 -9.161757 24 44 74 
0.329897 1.381443 -9.138144 52 68 82 
0.348718 1.374359 -9.091282 113 124 119 
0.365019 1.358682 -8.987579 121 131 123 
0.384324 1.355247 -8.964855 125 133 125 
0.404551 1.355247 -8.964855 125 133 123 
0.886650 2.700252 -17.861965 122 129 121 
0.931646 2.713924 -17.952406 121 129 119 
0.952854 2.660050 -17.596031 119 127 118 
1.010101 2.707071 -17.907072 112 121 114 
1.128464 2.700252 -17.861965 104 111 104 
1.498623 2.953168 -19.534986 96 105 101 
1.538462 2.945055 -19.481319 89 99 96 
1.578082 2.936986 -19.427946 85 95 92 
1.621918 2.936986 -19.427946 102 110 105 
1.939394 2.165657 -14.325657 61 72 87 
1.983740 2.178862 -14.413009 67 79 90 
2.008097 2.170040 -14.354656 87 97 104 
2.036364 2.165657 -14.325657 78 90 100 
2.060362 2.156942 -14.268008 56 68 85 
2.105263 2.170040 -14.354656 50 61 81 
2.124748 2.156942 -14.268008 51 61 81 
2.161290 2.161290 -14.296775 59 68 86 
2.180361 2.148297 -14.210822 59 68 87 
2.216867 2.152611 -14.239358 52 64 83 
2.235529 2.139720 -14.154092 76 88 102 
2.262948 2.135458 -14.125896 61 76 92 
2.290258 2.131213 -14.097814 34 50 75 
2.345381 2.152611 -14.239358 30 45 74 
2.358566 2.135458 -14.125896 34 46 74 
2.371542 2.118577 -14.014230 39 49 74 
2.412699 2.126984 -14.069841 45 59 81 
2.560000 2.144000 -14.182401 36 52 83 
2.581673 2.135458 -14.125896 37 55 83 
2.645161 2.161290 -14.296775 46 62 87 
2.672032 2.156942 -14.268008 68 83 101 
2.698795 2.152611 -14.239358 50 65 90 
2.736418 2.156942 -14.268008 37 52 83 
2.768612 2.156942 -14.268008 35 52 81 
2.800805 2.156942 -14.268008 39 55 83 
2.838710 2.161290 -14.296775 75 89 107 
2.859438 2.152611 -14.239358 58 75 93 
6.437500 4.187500 -27.700001 40 43 36 
6.500000 4.187500 -27.700001 67 68 58 
6.562500 4.187500 -27.700001 83 84 73 
6.625000 4.187500 -27.700001 72 74 64 
6.687500 4.187500 -27.700001 59 60 50 
6.750000 4.187500 -27.700001 53 55 43 
6.812500 4.187500 -27.700001 55 56 42 
6.875000 4.187500 -27.700001 62 63 52 
6.937500 4.187500 -27.700001 69 70 58 
7.000000 4.187500 -27.700001 69 71 59 
7.062500 4.187500 -27.700001 59 61 51 
7.250000 4.187500 -27.700001 28 30 25 
7.312500 4.187500 -27.700001 22 24 20 
7.375000 4.187500 -27.700001 17 19 17 
7.437500 4.187500 -27.700001 15 19 16 
7.500000 4.187500 -27.700001 15 20 17 
7.562500 4.187500 -27.700001 16 20 19 
7.625000 4.187500 -27.700001 22 25 24 
7.750000 4.187500 -27.700001 55 61 58 
7.714286 3.828571 -25.325714 141 167 172 
7.771429 3.828571 -25.325714 147 171 174 
7.800712 3.814947 -25.235588 150 174 177 
7.829787 3.801419 -25.146099 151 176 179 
8.203636 3.898182 -25.786182 164 186 188 
8.261818 3.898182 -25.786182 167 189 193 
8.289855 3.884058 -25.692755 171 193 195 
8.378181 3.898182 -25.786182 173 194 196 
8.436363 3.898182 -25.786182 173 196 197 
8.494545 3.898182 -25.786182 173 195 198 
8.583941 3.912409 -25.880293 165 190 193 
8.868914 4.014981 -26.558802 159 185 189 
2.795941 1.208568 -7.994589 42 47 49 
2.817156 1.209932 -8.003612 32 40 41 
2.835214 1.209932 -8.003612 29 36 36 
2.853273 1.209932 -8.003612 28 34 37 
2.861642 1.205849 -7.976603 27 35 35 
2.873176 1.203143 -7.958698 27 36 34 
11.375000 4.187500 -27.700001 17 20 16 
11.437500 4.187500 -27.700001 23 24 18 
11.500000 4.187500 -27.700001 30 30 24 
11.562500 4.187500 -27.700001 35 37 32 
11.625000 4.187500 -27.700001 41 43 35 
11.687500 4.187500 -27.700001 42 45 36 
11.750000 4.187500 -27.700001 37 39 34 
11.812500 4.187500 -27.700001 30 32 30 
11.875000 4.187500 -27.700001 23 27 25 
11.937500 4.187500 -27.700001 25 43 42 
12.000000 4.187500 -27.700001 45 90 105 
12.062500 4.187500 -27.700001 60 121 147 
12.187500 4.187500 -27.700001 96 155 179 
12.250000 4.187500 -27.700001 112 169 190 
12.312500 4.187500 -27.700001 118 178 201 
12.375000 4.187500 -27.700001 111 177 204 
12.437500 4.187500 -27.700001 100 171 201 
12.500000 4.187500 -27.700001 78 130 159 
12.562500 4.187500 -27.700001 63 80 89 
12.625000 4.187500 -27.700001 90 105 103 
12.687500 4.187500 -27.700001 124 147 151 
12.875000 4.187500 -27.700001 158 182 188 
12.937500 4.187500 -27.700001 163 188 194 
13.000000 4.187500 -27.700001 166 191 196 
13.062500 4.187500 -27.700001 170 194 199 
13.125000 4.187500 -27.700001 173 196 202 
13.187500 4.187500 -27.700001 174 197 203 
13.250000 4.187500 -27.700001 176 198 205 
13.312500 4.187500 -27.700001 176 198 205 
13.375000 4.187500 -27.700001 172 195 202 
13.437500 4.187500 -27.700001 149 172 184 
13.500000 4.187500 -27.700001 103 119 126 
13.562500 4.187500 -27.700001 87 98 97 
13.625000 4.187500 -27.700001 87 98 98 
13.687500 4.187500 -27.700001 90 97 97 
13.750000 4.187500 -27.700001 90 98 95 
-5.035533 1.786802 -11.998647 210 214 209 
-5.008460 1.786802 -11.998647 211 213 209 
-4.931323 1.768844 -11.878057 210 212 208 
-2.842353 1.242353 -8.342588 54 66 83 
-2.836879 1.248227 -8.382033 26 39 60 
-2.821302 1.249704 -8.391953 23 45 74 
-2.789164 1.243816 -8.352415 21 43 64 
-2.790035 1.252669 -8.411862 24 54 90 
-2.771056 1.252669 -8.411862 22 59 100 
-2.742317 1.248227 -8.382033 25 60 103 
-2.716981 1.245283 -8.362265 22 61 104 
-2.717340 1.254157 -8.421853 20 60 103 
-2.695136 1.252669 -8.411862 20 60 104 
-2.679335 1.254157 -8.421853 23 64 107 
-2.654028 1.251185 -8.401896 25 64 108 
-2.638197 1.252669 -8.411862 24 63 106 
-2.619217 1.252669 -8.411862 22 63 107 
-2.600237 1.252669 -8.411862 23 65 108 
-2.587396 1.255648 -8.431867 25 63 105 
-2.574493 1.258641 -8.451967 23 64 105 
-2.555423 1.258641 -8.451967 22 64 106 
-2.536353 1.258641 -8.451967 23 64 107 
-2.520286 1.260143 -8.462052 23 64 107 
-2.501193 1.260143 -8.462052 19 63 108 
-2.482100 1.260143 -8.462052 21 65 112 
-2.465950 1.261649 -8.472162 21 64 109 
-2.446834 1.261649 -8.472162 22 61 105 
-2.436451 1.266187 -8.502638 23 63 108 
-2.414371 1.264671 -8.492455 22 65 111 
-2.398082 1.266187 -8.502638 22 70 117 
-2.378897 1.266187 -8.502638 21 68 115 
-2.371084 1.272289 -8.543614 23 68 117 
-2.337724 1.264671 -8.492455 22 69 117 
-2.340991 1.276904 -8.574607 24 66 114 
-2.313253 1.272289 -8.543614 23 64 113 
-2.293976 1.272289 -8.543614 24 62 111 
-2.266507 1.267707 -8.512845 23 59 105 
-2.255422 1.272289 -8.543614 21 55 99 
-2.230769 1.269231 -8.523077 20 50 90 
-2.214200 1.270758 -8.533334 22 50 90 
-2.187050 1.266187 -8.502638 20 50 91 
-2.178313 1.272289 -8.543614 19 50 92 
-2.153846 1.269231 -8.523077 17 48 88 
-2.139759 1.272289 -8.543614 20 48 91 
-2.117930 1.270758 -8.533334 21 54 98 
-2.108827 1.276904 -8.574607 22 56 101 
